ply
format ascii 1.0
comment VCGLIB generated
element vertex 904
property float x
property float y
property float z
property float nx
property float ny
property float nz
element face 0
property list uchar int vertex_indices
end_header
-12.0184 -20.0966 -5.22028 1.84455 -5.98458 -0.500957 
17.4816 4.69171 -3.77723 4.31542 1.99769 -4.09335 
-16.0162 0.682573 -2.92969 -0.412047 -0.198179 -4.4696 
11.7573 9.17851 -0.153535 2.14765 3.31568 4.86356 
-9.27853 -18.7804 2.85148 4.86493 -3.93741 0.523624 
17.2603 -2.58683 0.172113 0.54224 -2.22941 5.84194 
9.49336 -13.7774 -5.41164 -5.7116 2.56118 -0.439119 
11.2636 -2.43252 -4.67067 -1.09003 -0.586468 -6.15867 
10.6426 -19.1728 -12.6564 -3.75531 -4.97497 -0.23551 
8.54291 -16.4666 1.4141 -0.0676501 -4.40855 4.47401 
11.2365 -4.88635 -3.33741 -0.0518799 -4.69487 -4.17091 
11.8666 -19.5214 -12.2408 -1.38942 -6.12434 -0.00497137 
9.00688 -15.4209 -5.68919 -6.20213 0.326078 -0.902536 
15.0044 -14.2827 -13.564 5.02468 3.55438 -1.02074 
-15.1834 -12.9587 5.92313 -4.49299 4.26209 1.01861 
9.9186 -15.1335 5.29456 -6.11816 0.00627969 1.35082 
-19.9053 -3.62222 -1.59904 -2.24541 -1.09891 -5.76272 
11.1828 7.64791 0.270311 0.439902 0.424081 6.25326 
-12.3088 -5.55787 -1.61917 3.24167 -1.34482 -5.08739 
-14.1993 9.76749 -1.26372 -1.75818 1.7635 -3.4008 
-9.06942 -14.4362 17.9693 5.58245 1.43395 2.28974 
-15.6509 -7.02799 2.83752 -3.95227 0.167966 4.85741 
-7.17421 14.5346 -1.2876 -5.1926 1.03897 3.35105 
-13.4471 -12.7313 14.549 -3.73014 5.01113 0.624709 
11.9911 -9.17703 -3.81886 -4.52823 1.14138 -4.19127 
-5.94281 -14.6139 2.61317 1.6496 0.556194 6.03374 
-4.22647 16.9988 -4.56558 -4.45032 1.56935 -4.07591 
16.4608 1.7959 0.18855 1.14725 0.670076 6.12879 
-4.8625 8.6468 1.40151 0.816241 -1.37335 6.00314 
-19.6035 0.670766 -0.266744 -4.83866 2.74805 -2.906 
-17.315 0.667065 2.70782 -2.09489 1.54869 5.69855 
-16.1439 -12.4948 -2.17196 -2.65069 0.771903 2.34767 
-4.63913 10.782 1.26433 0.273832 1.29586 6.10752 
-8.1336 -6.30114 0.116785 0.428835 -3.2573 2.25354 
-13.2842 -14.066 -13.588 1.02228 6.03398 -1.40622 
17.7245 -4.25274 -0.793012 0.937743 -3.20399 5.30802 
-14.4299 -4.71489 2.97752 0.352914 0.422647 6.2589 
11.4218 -12.9764 -10.9238 -1.82473 4.21995 -0.940047 
-18.8179 0.966315 -1.1934 -4.60108 2.33511 -3.58457 
15.411 -5.65097 -4.9183 1.41672 -0.753388 -5.94665 
-6.25957 17.1102 -0.53085 -4.54494 0.672598 2.89353 
5.06223 -17.9247 0.259771 0.434412 -4.8992 3.90551 
10.2569 10.818 -1.22943 1.95999 4.72909 3.64133 
13.0752 -17.1761 13.6144 -2.33793 -5.60115 1.61191 
10.0994 4.73053 -1.76357 -3.28766 -4.18808 3.3233 
13.6763 -5.32608 -4.79486 -0.676006 -0.165719 -4.06642 
11.1535 -11.2087 1.15959 -3.17141 3.30317 4.27405 
17.827 -15.9826 1.59675 3.90015 -0.144399 0.199363 
17.1373 -1.02498 0.284386 0.910684 0.276313 6.2082 
-14.8431 -5.55521 -2.55252 -0.397368 -0.424107 -6.25525 
-18.9781 -3.65885 -1.99346 -2.26704 -1.45498 -5.66047 
-14.1253 2.40135 -3.09462 0.0790427 -0.502209 -6.25761 
15.4205 1.49068 -5.44259 -0.841834 -0.412624 -6.21054 
17.6532 -13.5553 -2.61755 5.64335 0.0486219 -2.75651 
-12.5063 -20.4417 1.43912 0.282747 -6.26727 0.326535 
-8.7707 -15.0004 16.2714 6.23244 0.187847 0.752046 
21.0364 -2.66377 -1.14984 2.9381 -0.384743 5.53047 
-14.3509 -14.1149 -13.5334 -1.58853 6.01009 -0.908727 
15.3631 -8.83466 -4.60863 2.23264 -0.511096 -5.83002 
19.6893 0.0721147 -4.04198 3.71056 2.76069 -4.2485 
-11.8876 -2.88325 -2.84818 0.270794 -0.360861 -6.26546 
11.0247 -13.8768 10.0982 -5.87148 1.74276 1.33999 
9.55588 -17.0404 -18.3669 -6.10575 -0.574102 -1.2902 
13.897 -0.198049 0.58955 0.53812 0.352844 6.25007 
-17.0876 3.01579 -2.33532 -4.3432 1.43788 -4.30571 
-10.7456 7.19317 -3.74324 -0.477434 -0.309303 -6.25645 
15.413 -10.4274 1.03383 0.253269 0.375928 3.47754 
-8.33957 -17.2532 -1.96469 1.21187 -2.86713 -2.44115 
-13.0914 -13.3639 -9.91005 0.324794 6.1616 -1.18251 
16.6749 -16.3205 -8.10049 6.12009 -0.587104 -1.27616 
12.8674 -3.81698 -4.58898 -2.20869 -2.73087 -5.18025 
-11.0522 -18.0638 14.8035 1.46279 -6.05329 0.785715 
14.9255 -19.5811 -5.09121 2.96158 -5.46207 -0.920496 
-9.30606 -13.3239 12.8504 4.82069 3.97214 0.453599 
15.5165 -14.3933 -11.4333 5.23746 3.21855 -1.28505 
17.9995 -9.39212 -2.09657 4.72992 -0.305258 -2.36019 
12.1172 -19.6918 0.735887 -1.46041 -5.95616 1.36332 
-14.9295 -12.4376 4.25144 -3.60916 4.80299 0.775308 
-16.727 -15.0164 3.617 -6.04816 1.20184 1.19752 
-10.7915 8.34236 1.92823 0.41379 0.530284 6.23589 
20.5773 -4.79159 -1.71681 2.43119 -3.58265 4.4981 
-8.31063 12.0694 -0.43614 -0.63648 4.85214 3.92169 
-12.3596 -19.8737 -10.4298 2.18204 -3.66994 -0.581147 
-16.1685 -17.1313 5.2809 -5.75293 -2.16004 1.30121 
-5.22494 7.29225 -3.31293 0.240798 -5.14936 -3.58235 
2.82893 7.57078 -4.79452 2.28099 -4.73325 -2.7383 
8.70738 -2.13964 -0.200658 -3.4052 3.57666 3.88234 
9.48725 -17.5644 -12.8414 -5.61056 -2.82036 -0.0419246 
8.3672 11.5444 -1.25341 1.76707 4.84255 3.59121 
-1.48833 8.77414 -6.14023 0.864396 -3.5209 -5.12758 
17.3146 -5.11987 -3.52354 2.38224 -1.777 -4.17377 
-8.76398 -15.969 14.2342 6.07831 -1.55274 0.0134592 
-6.57584 13.9238 -3.70286 -2.84911 1.08283 -5.49276 
7.50649 10.3882 0.368566 0.832819 1.80539 5.88525 
-13.5847 -12.9921 -7.90865 -1.45504 5.98789 -1.19063 
9.99743 -18.5904 -10.354 -4.7465 -4.10352 -0.26076 
-18.4873 0.233739 -2.05333 -4.1868 1.85337 -4.29149 
17.9196 -12.9828 -1.55637 6.22202 0.584549 0.463336 
9.22262 -15.5243 -10.4708 -6.18389 1.01139 -0.365042 
-15.1428 -13.147 -5.06725 -3.40307 5.15542 -1.14217 
-11.1515 6.14118 2.08044 1.16225 -0.592058 6.1216 
11.7739 -13.9365 13.9029 -5.98917 1.37312 1.15776 
16.6413 -10.5922 0.619456 5.01615 0.37434 3.42889 
9.49249 -0.935037 -0.880706 -3.25327 4.46118 2.99611 
-13.6172 -0.0289587 2.67335 0.418975 0.250333 6.26387 
3.23854 -15.0319 -0.54368 -1.89878 2.33032 -1.01587 
-6.61972 15.6888 -3.44973 -3.15899 0.91655 -5.34162 
-10.602 -18.1671 14.6197 3.61812 -5.01718 1.06584 
-9.19362 -13.7406 17.1851 5.37315 3.21089 0.394173 
9.69327 7.9382 -5.37065 -0.702996 -0.291316 -6.236 
21.5281 -3.6176 -1.54291 2.83238 -1.99433 5.23229 
-11.0907 -15.7978 19.1259 0.632388 -0.00913841 3.73215 
-9.26335 -11.5161 1.99707 3.68792 4.55977 2.19002 
-0.232543 16.5012 -7.60234 1.45596 -1.55985 -5.90627 
-16.7464 -17.2759 -8.11926 -6.14741 -1.26539 -0.19709 
18.0132 -3.15694 -0.125195 0.523772 -2.68143 5.65293 
-11.183 -11.1536 -2.02368 3.55601 2.49376 -4.5362 
18.0027 4.39476 -2.50764 5.13543 2.40559 2.67688 
-11.4782 7.49638 2.06132 0.0850358 0.295364 6.26007 
-6.81267 -13.6367 2.39592 2.96658 4.44622 3.24936 
-14.8737 -7.18324 3.08966 -0.729274 0.617518 6.20951 
10.4524 -10.6815 -2.61638 -4.21243 2.81623 -2.78465 
-16.8132 -17.5167 -2.88277 -5.93143 -2.0577 0.0330452 
-8.07183 -14.7852 3.03701 -0.112971 0.104846 6.19866 
5.77643 -17.9549 0.2302 0.923598 -4.70963 4.04988 
-11.8046 7.6665 2.07491 0.559445 0.3773 6.24495 
-14.2875 -17.5685 11.9763 -4.71848 -3.95134 1.21934 
11.8009 0.437782 -4.74078 -3.31523 1.07833 -5.15968 
2.44406 10.4768 -6.83369 2.01688 -1.64917 -5.69297 
7.79046 -17.7156 -2.0366 0.431624 -5.46902 -3.05411 
11.3696 8.50613 0.188867 0.341771 0.427073 6.01854 
-16.7853 -4.89582 -1.89165 -2.63156 -0.692713 -2.66653 
-11.2141 0.320114 1.61763 4.74342 2.90196 1.59455 
-4.46931 10.0475 -6.10426 -3.27568 -1.54719 -5.13109 
-16.1175 -14.9215 6.45169 -6.08611 0.97026 1.18307 
11.1561 2.17038 -2.09399 -6.0466 0.623209 1.47013 
12.6559 1.09075 0.530204 -1.4985 0.796385 6.03172 
-9.31875 -2.2142 -2.02892 2.71816 3.2178 -4.65383 
17.3042 -13.493 7.92683 5.73704 2.52285 -0.172679 
14.8778 -19.6999 -4.06521 1.87522 -5.9811 -0.407153 
-16.5434 -17.9037 -8.88929 -5.82507 -2.34369 -0.0800005 
-2.0362 13.5272 -7.23894 -2.07636 0.575655 -5.8898 
-16.83 -15.9885 -6.31836 -6.20659 0.912737 -0.28133 
15.9023 -13.7204 -8.46294 4.92393 3.69033 -1.25861 
-12.7213 -12.3405 14.0297 -1.26492 2.75505 0.205004 
10.8865 -13.5814 8.53105 -5.70564 2.32905 1.13441 
-13.0863 -13.2196 -9.30086 0.15615 6.18999 -1.02553 
10.1788 -18.5047 0.577656 -4.32702 -4.10554 1.96928 
-14.7033 8.12224 -2.10281 -3.59421 2.90346 -4.2559 
-11.1853 -12.6689 18.1234 0.331713 3.25217 1.88202 
-15.8643 -19.0649 -6.45236 -4.18102 -4.67526 0.212306 
-19.0713 -0.231621 2.00626 -3.45775 2.67937 4.5076 
13.4516 -15.4735 16.9098 -1.44634 -1.06001 4.74219 
10.7195 -3.91191 0.618079 -0.227074 -1.74598 5.95933 
17.1765 6.31536 -3.17349 4.46686 2.33623 -1.1815 
2.76122 7.26471 -1.00038 -0.224933 -3.71865 2.60863 
11.5492 -12.1213 5.92936 -3.81895 4.89954 0.866906 
13.564 -20.0526 -2.54828 0.175167 -6.266 -0.417006 
-14.4115 -20.1586 -0.373432 -2.08752 -5.91918 0.269573 
12.1111 9.68083 -0.867912 2.51831 4.48491 3.60296 
-13.1131 -20.4397 -0.719582 0.0457776 -6.2648 -0.120962 
15.9382 -11.9375 12.1751 3.71228 3.75682 0.121833 
-18.346 2.66217 0.830244 -4.40126 2.19107 3.91183 
5.2647 8.34256 0.31608 -0.40168 -3.86597 4.93062 
13.7483 -6.41101 1.00611 -0.815684 0.428733 4.65477 
-9.46685 10.5686 1.0758 -1.23932 4.41201 4.29792 
-9.024 12.2839 -1.74057 -1.60561 6.00305 -0.800353 
-16.6306 -14.7613 3.82649 -5.99893 1.43594 1.18961 
14.8403 -12.158 -6.42911 2.59831 5.53651 -1.35975 
16.4979 -12.7095 -4.12406 5.06796 2.00232 -3.10234 
9.03315 -11.8728 -2.08582 -3.63418 4.39423 -2.62492 
-10.4831 9.47017 -3.77173 -1.14775 1.14093 -6.06696 
-8.94914 -12.7377 -1.77513 2.88591 3.62302 -4.23058 
-4.1959 16.0127 -4.96162 -5.09859 1.11048 -3.48068 
-9.99555 -16.3991 -9.31186 6.1091 0.105183 -1.38995 
13.6659 -19.4571 -11.212 1.62482 -6.05624 -0.381539 
12.5041 -19.5498 -13.1297 0.268639 -5.88188 -0.276924 
-10.1973 -19.2226 -3.47939 4.46287 -4.38466 -0.519898 
-16.0874 -0.825538 -2.84444 -0.5138 -0.457921 -6.24527 
-11.5153 -15.6448 -14.9395 5.03183 3.37457 -1.65246 
10.1902 -15.2546 6.80753 -6.10432 -0.480199 1.33349 
10.6439 -16.9933 6.33795 -5.43846 -2.82098 1.38364 
12.6073 -19.8492 -7.59282 -0.0290073 -6.27391 -0.175753 
1.95233 15.0808 -1.57751 0.561871 0.162364 6.25162 
-10.8556 -3.17242 -2.8055 0.941235 -0.349401 -6.19645 
16.8269 6.23322 -3.66611 4.19643 2.32113 -4.03238 
-9.22721 -16.7968 15.4956 5.38176 -3.22678 0.209377 
12.1807 -13.6485 -15.9893 -0.276147 6.17058 -1.0685 
-15.8963 -19.0464 -5.73129 -4.78848 -4.06332 0.0150548 
-15.2512 -13.6476 8.48037 -5.28303 3.26015 0.876544 
-3.45299 16.9535 -6.01922 -5.28315 -0.0975087 -3.39361 
11.5868 -6.16081 -2.33568 -3.05231 -1.25995 -2.30894 
-5.18354 7.39936 0.429259 1.51505 -4.53778 4.06764 
-6.34024 6.17399 -1.44274 1.92192 -5.82613 -1.3005 
17.2353 -14.6768 -5.01402 6.00704 1.12367 -1.43981 
12.785 1.45523 0.54695 -1.27427 0.168432 5.98087 
-10.085 -2.59415 2.34639 1.68637 0.372173 6.03008 
-1.16216 15.4709 -1.32146 0.400148 -0.313585 6.26186 
-11.8593 -16.4152 -16.2741 4.42459 1.20313 -4.20717 
-10.7056 5.20036 1.22802 3.52369 -3.92145 3.22141 
-15.2548 2.34429 -3.0554 -0.570351 -0.409593 -6.24337 
15.6244 -11.8038 8.64217 2.44681 5.01811 0.190884 
10.0454 -18.6925 -4.03719 -4.27397 -4.57556 0.472146 
-0.926212 7.52042 -4.70056 1.4693 -5.17474 -3.23293 
-15.1113 5.71036 2.21645 -2.05992 1.59116 5.70242 
17.3211 -16.5286 6.40033 5.76838 -2.47012 0.250065 
10.1537 5.66213 -0.533957 -3.28391 -4.08153 3.4571 
9.89482 -18.3747 -10.1245 -4.87477 -3.94508 -0.365101 
-14.3915 -9.99454 -2.39479 -0.201824 -0.238528 -6.26062 
-15.6485 -14.2991 8.16619 -5.78155 2.09468 1.22468 
15.1564 -11.8073 12.7549 1.84883 5.99793 0.227918 
12.0633 -17.5945 9.37194 -3.97415 -4.71557 1.17342 
16.9551 -12.7749 3.08583 4.9539 3.85961 0.0898637 
12.9757 -19.6654 -10.3392 0.704141 -6.2372 -0.168552 
-19.7847 0.658377 0.465267 -4.9676 3.41919 1.6697 
9.76613 -15.7414 4.35927 -6.08642 -0.292368 1.51567 
13.7714 4.70937 0.316888 0.75606 0.423242 6.22252 
-18.6001 -5.57496 1.55964 -0.303887 -4.28141 4.58779 
2.23288 15.3564 -6.16624 3.80675 2.49047 -4.33125 
-11.0753 10.0924 1.06817 -1.54443 4.38862 4.21809 
14.5262 -3.16083 0.658539 0.289989 0.37995 6.26159 
-10.7795 -20.0208 -0.00131255 2.28627 -5.81647 -0.509235 
-13.2009 -12.276 -4.0901 -0.341961 6.18525 -1.00397 
-9.7082 -16.5317 -7.8812 6.21738 0.0852026 -0.866495 
-10.3643 -5.76046 -1.28495 -0.56241 -5.28309 -3.34163 
-8.72392 -17.5271 5.08355 5.73823 -2.52883 0.375193 
13.3538 -20.0929 -1.19547 0.517767 -6.25567 -0.0927202 
15.1298 -18.4822 -11.3877 4.37506 -4.44643 -0.735087 
13.186 -19.7274 -9.45088 0.745958 -6.21857 -0.430288 
10.6482 -5.27975 -2.85796 0.0603447 -4.98793 -3.81591 
14.349 -12.704 -9.18345 2.25295 5.71215 -1.32832 
15.7699 -13.9058 -9.70811 4.99975 3.58825 -1.23678 
13.8968 -18.4715 -18.2072 4.05186 -3.92203 -1.29498 
-8.29398 -15.8625 4.53398 6.27862 -0.103024 0.0747683 
-6.168 16.3195 -3.57354 -3.2668 0.77647 -5.30586 
9.41214 -14.9957 2.58359 -5.76046 0.451943 2.38067 
16.1316 -7.81048 -4.24962 3.81022 -0.400093 -4.97765 
-2.55324 7.7008 -5.21606 0.46486 -4.85061 -3.66148 
13.8711 -11.4524 9.70518 -0.439496 6.26188 0.217166 
9.84752 -10.7313 -0.713397 -4.01995 4.36512 2.03707 
-14.2499 -12.703 9.43229 -4.02754 4.73096 0.902793 
-2.97858 20.1639 -3.18839 -1.02557 6.11473 -0.99554 
9.86861 -16.6988 -19.1581 -4.37866 -0.00125767 -3.6819 
5.06267 16.7953 -4.04818 2.52025 1.23006 -5.57358 
-8.41704 -15.6121 8.05562 6.25221 0.285321 0.240259 
14.1308 -17.8577 -18.8675 4.90307 -2.84656 -2.53225 
-12.8397 7.9664 2.0075 -0.541822 1.93561 5.93012 
-2.63255 9.62758 -6.63503 -1.13528 -2.38205 -5.69829 
-16.0609 -12.0609 2.91721 -4.22341 0.806496 4.58062 
-4.38325 16.2194 -4.78911 -4.99713 0.966242 -3.66987 
-10.732 8.0031 1.9332 0.399632 0.388946 6.25634 
-10.7841 8.82561 -3.80736 -0.746554 -0.554354 -6.21123 
-8.78703 -13.638 4.08005 5.49385 2.98084 -0.547445 
17.1642 -8.19666 -0.456515 5.06737 0.118196 3.69804 
17.7328 4.81612 -3.06689 5.56516 2.77941 -0.636013 
-9.78163 12.0363 -2.01217 -2.22423 5.71283 -1.36249 
4.83251 18.508 -3.5463 1.42826 0.167913 -5.40447 
-13.9065 -14.0378 17.3309 -5.87246 1.68698 1.41144 
-16.2634 -18.5974 -2.58102 -5.064 -3.71457 -0.0931656 
-11.1492 11.0263 -0.0330291 -0.556925 1.21054 1.35044 
4.23684 6.536 -1.99869 -0.00216034 -2.38669 1.45604 
-11.1946 -13.5001 -7.39166 3.45606 5.09573 -1.23345 
11.7606 -18.3761 5.74203 -3.35001 -5.22208 0.978298 
6.55085 13.8377 -3.6075 4.39897 2.54408 -3.67877 
11.5396 -15.3497 12.729 -5.93443 -1.56807 1.27854 
8.34525 6.31394 -0.976629 -1.86562 -4.57791 3.87374 
10.4632 -11.634 1.08909 -2.94179 4.03046 3.81672 
-12.1301 -11.711 7.96254 -0.045335 6.27677 0.176358 
11.369 -12.9339 -10.6067 -1.68211 3.63737 -0.615405 
-9.84883 -0.643127 -0.406196 2.41142 3.57579 -0.191704 
12.4565 -12.5578 13.348 -4.4731 4.33869 0.675812 
-9.94881 -19.3226 -1.84489 4.07075 -4.6904 -0.915301 
16.541 -14.8353 -8.14654 5.83035 1.76527 -1.51645 
10.6725 -13.17 6.27865 -5.36896 3.06517 1.11283 
-8.58569 -1.99572 -1.29971 3.23851 3.76188 -3.82978 
-20.5647 -3.445 -1.31677 -2.62759 -0.873423 -5.63797 
-4.7591 -16.5292 -1.85259 0.9807 -0.300843 -6.19791 
12.6544 -16.5239 -19.8267 -0.00364767 -0.141712 -6.27802 
9.18404 -15.4874 -9.79859 -6.16335 0.992688 -0.633615 
-16.5602 -7.33894 1.99754 -4.44014 0.476496 4.4169 
16.6224 -18.1119 2.82634 4.57966 -4.24093 0.689684 
11.657 -13.9906 13.6094 -6.05433 1.06241 1.29716 
12.6178 -12.8808 -11.8499 0.585026 6.1056 -1.32264 
16.9021 -15.7064 15.4565 5.52628 -2.75482 1.13914 
18.0875 -5.41988 -1.64579 4.5566 -1.17529 4.15115 
-5.85478 7.71766 1.0482 1.58747 -4.38144 4.18991 
16.9004 -14.1141 16.2457 4.00488 1.01304 2.20431 
15.9433 4.25665 0.258452 -0.092501 -0.883877 5.21831 
-11.343 -9.57866 2.42058 4.83317 2.48047 3.13112 
-17.0117 -15.797 -1.73987 -6.2511 0.498881 -0.116842 
6.85272 13.6549 -2.89097 5.76867 2.03818 -0.0572062 
2.66976 13.4177 -1.56276 0.594387 0.220429 6.23638 
17.7483 -14.5495 2.43157 6.19063 0.987957 0.272721 
-5.85254 9.06534 1.50578 0.498292 0.417081 6.24395 
-13.4409 -16.4643 17.5905 -4.94108 -3.50483 1.64818 
-15.2628 -19.4412 -11.6265 -3.40166 -5.21257 -0.242466 
13.9853 8.61561 -4.40386 2.42635 3.36895 -4.70942 
17.75 1.54387 -0.163509 2.63554 1.50608 1.62864 
22.6314 -2.0692 -2.42189 4.5474 2.67412 3.3321 
12.8612 -6.73245 0.418969 -3.81685 0.969193 4.89015 
-4.77286 11.7262 -6.22568 -3.68089 0.281838 -5.07193 
-11.3141 -20.2341 -0.0370183 1.9093 -5.97404 -0.319222 
17.313 -17.6139 -1.84158 5.59688 -2.75989 -0.532876 
16.7752 -2.28163 -5.25079 0.123624 -0.591088 -6.25246 
13.3332 2.83828 0.465647 0.28691 0.174829 6.2178 
14.666 -10.6588 -4.52885 -0.431051 -0.526042 -6.24271 
9.0327 -15.3831 -7.68586 -6.0032 0.932799 -0.386542 
-15.5262 -18.9754 3.24122 -4.66715 -4.03175 1.17358 
15.8011 -8.03272 -4.47323 3.66306 -0.493783 -5.07927 
7.42069 -3.33726 -0.187477 -3.16943 1.99086 4.99918 
-15.8541 -14.5163 7.48822 -5.97712 1.48773 1.22773 
-14.8452 -19.8654 -5.67158 -2.94763 -4.84968 -0.124075 
9.09585 -0.855714 -1.34895 -3.6164 4.63219 2.09481 
-12.346 -13.8594 18.9908 -0.281027 1.58655 6.04486 
16.1242 -14.3059 16.8906 1.24579 0.356037 6.09989 
-12.1001 -8.16636 -1.48695 4.23933 0.83641 -4.55897 
1.93313 -17.7742 -0.6624 -3.67929 -3.32977 -3.63565 
-8.20613 11.8557 -4.02149 -0.814327 0.503479 -2.79151 
12.6665 10.8959 -3.22511 3.17411 4.78159 -1.58302 
9.73107 -11.9757 0.920078 -2.67322 4.3376 3.67227 
-19.1669 -5.14245 1.75233 -0.488235 -4.36492 4.49027 
-10.9352 -9.88585 -1.00703 3.8492 2.35233 -3.72116 
-12.7282 -6.68825 2.73356 3.11092 0.963705 5.31454 
-9.39011 -18.9172 -0.751038 5.15761 -3.42233 -1.06323 
10.2692 4.14251 -2.50144 -2.13386 -2.388 -1.25436 
9.74207 -5.10585 -0.176598 0.696626 -4.44984 4.37394 
14.8951 -9.91087 -4.62051 -0.25518 -0.489848 -6.25795 
-16.8866 -17.2066 -4.24666 -6.18309 -1.07135 -0.189853 
7.35093 -17.6208 0.236394 1.45119 -4.87587 3.68561 
9.52649 -15.0423 -12.7887 -5.61536 2.73219 -0.657217 
-12.2571 -19.517 7.0494 -0.0374622 -6.19914 1.00833 
0.292281 19.2788 -7.01764 0.552775 3.2825 -2.33385 
10.4874 -15.5387 8.1622 -6.18941 -0.640669 0.849729 
8.85068 9.17304 0.345699 0.408322 0.223783 6.22231 
12.9629 -13.2826 -13.8833 0.756258 6.0448 -1.20005 
1.84139 11.9482 -0.00227592 0.456463 5.06753 3.68124 
-13.3824 -7.71023 -2.54316 2.62074 0.159732 -5.47912 
15.6014 -17.3148 -12.7583 5.60234 -2.75758 -0.671817 
12.0848 -19.7889 -7.06289 -0.948123 -6.20925 0.0974946 
17.1533 -17.4234 2.24772 5.20638 -3.46794 0.449697 
12.0353 -19.3226 -17.2493 0.0261707 -6.25252 -0.347744 
-14.4575 -17.521 11.4606 -4.86205 -3.81163 1.1219 
-13.1575 3.86447 2.40372 -0.0844076 0.286837 6.27414 
17.7205 -5.64182 -3.07695 4.07271 -1.76256 -4.43934 
16.9566 -15.7295 15.1098 5.77826 -2.16922 1.15448 
6.24123 14.1363 -3.79245 3.92425 1.39756 -4.68942 
15.7559 -11.1353 1.06104 1.68741 1.97008 5.68971 
17.3619 -14.987 -4.7806 5.98668 0.985602 -1.55457 
-4.63375 11.0743 1.1523 0.288424 3.36451 5.27168 
17.6602 -14.8724 6.48039 6.26399 0.351315 0.0636439 
5.96396 17.5637 -3.46645 3.06228 0.217261 -5.44508 
13.7729 -12.3473 16.7986 -4.23658 2.27461 -1.31814 
17.2379 -17.1521 3.26061 5.43544 -3.11271 0.44161 
-2.97142 19.1283 -5.23347 -4.49544 3.96601 -1.78631 
-1.48684 9.63437 -6.65023 0.287183 -2.91774 -5.54945 
5.75713 15.712 -2.07125 -0.128313 0.230634 6.27083 
-4.17261 19.1445 -1.42826 0.0919551 2.01635 5.93942 
-16.4699 -14.9849 -7.25377 -5.63851 2.72698 -0.444517 
6.5693 16.6454 -2.70034 6.15389 0.616973 0.962959 
-4.72077 19.779 -2.91739 -1.02329 4.73231 -3.81786 
-0.310735 7.0415 -1.23702 0.48725 -5.2076 3.44876 
15.4382 -12.0287 15.1144 1.8083 5.98464 0.489467 
9.22777 6.25364 -0.571191 -1.83597 -3.84267 4.55041 
4.24246 10.4994 -5.32128 3.09543 -1.55059 -5.20985 
10.9279 -19.0928 0.701203 -3.3912 -5.16104 1.14572 
-10.7113 -9.55904 1.53752 4.29986 2.43146 2.0998 
-9.90378 -13.5105 -3.52784 4.00985 4.67111 -1.24208 
6.19896 8.76851 0.548997 0.271377 -0.963591 6.15481 
-0.217424 17.9336 0.159277 0.378282 -4.03989 0.213068 
14.4742 -15.9207 -18.4104 5.61163 2.07479 -1.90991 
-14.4826 -18.7084 7.44538 -2.50166 -4.03532 1.0368 
-16.8983 2.54109 -2.69563 -4.13315 0.951342 -4.59638 
-8.83738 11.9922 -0.452609 -0.62981 4.85882 3.91342 
-13.5301 -19.4516 6.28001 -1.87016 -5.88432 1.13794 
-13.183 -3.586 2.7627 0.824852 -0.754291 6.1741 
-14.9353 -10.3713 -2.22533 -0.519659 -0.358622 -6.25106 
-10.1104 -19.141 5.49163 3.16335 -5.3496 0.915337 
12.3907 -15.4871 -19.8194 0.0625157 1.05857 -6.17237 
-9.1255 -18.3424 -1.49413 5.33025 -3.10854 -1.16373 
1.63536 9.72626 -6.74862 1.28169 -2.44235 -5.64309 
-12.0971 -15.7649 19.1159 -0.892212 -0.653637 6.1687 
-14.3984 -9.2868 -2.44446 -0.465553 -0.448896 -6.24962 
-9.64554 -18.361 8.14279 4.30617 -4.54598 0.477642 
-14.966 0.360586 2.72409 0.370202 0.350077 6.26223 
17.1982 -16.5265 7.59743 5.50452 -2.96977 0.559845 
16.0391 -11.8189 2.33405 3.64256 5.09989 0.221266 
-13.5347 -12.312 -3.83036 -1.12863 6.08349 -1.06109 
-2.00474 19.2997 -1.47379 0.480984 1.03599 6.16488 
14.6175 4.14284 -5.52685 -0.681906 -0.224949 -6.24089 
13.937 -10.5464 1.1355 0.563577 0.615025 6.22482 
-1.7229 9.39243 -6.53872 0.516148 -2.84104 -5.54021 
16.1333 0.870232 0.299646 0.214183 0.300423 5.77032 
-6.15054 19.0637 -1.41446 -0.499221 2.03139 5.62536 
14.4854 8.80159 -3.95993 3.43437 3.37568 -4.01744 
1.71427 9.45802 -6.6173 1.31164 -2.37414 -5.66668 
-15.1577 -18.6418 -16.115 -2.13085 -3.15122 -3.29239 
17.6283 -15.2634 6.5891 6.2322 -0.735256 0.20245 
11.2878 -19.3743 -12.6579 -2.5279 -5.74595 -0.179205 
12.4029 -13.5341 -15.3274 0.0650655 6.19605 -1.03342 
11.8501 -6.99083 -2.78701 -5.64848 -0.109738 -2.73849 
-3.87068 -18.5555 -0.192608 0.296384 -5.79322 -2.33376 
15.8694 3.31115 -5.51574 1.35391 0.80078 -6.04183 
-9.92224 -10.8633 1.88001 4.51287 3.7283 2.27652 
-16.3396 -15.4029 -11.6992 -5.54078 2.93207 -0.263498 
-17.4249 -5.39413 -1.29328 -2.42204 -3.5522 -4.52872 
-15.8918 -13.3787 -2.48867 -2.61956 2.40934 -0.29472 
-5.10896 12.5521 -5.7248 -3.785 2.35334 -4.39777 
0.232036 12.6972 -0.896845 0.215657 4.93278 3.87662 
17.6146 -15.1263 7.38159 5.91526 -0.314426 0.110218 
10.7599 -9.54982 -1.84252 -5.39009 2.83664 -1.53476 
12.5305 -11.4901 5.10999 -1.26685 2.86533 0.254903 
17.3078 -8.74436 -3.08803 4.57261 -0.205862 -4.30327 
10.4698 -17.202 -19.4549 -1.28016 0.0297851 -2.67393 
15.0663 -2.96371 0.621678 0.510077 0.569469 5.2701 
-21.3856 -3.23356 2.00982 -1.71513 0.0876986 4.3772 
-16.5986 -14.4727 -2.86991 -5.70532 2.48826 -0.523671 
15.9123 -16.1412 -12.1779 6.11552 0.304603 -1.34312 
-10.5721 -13.7194 -6.53257 3.96103 4.669 -1.37874 
14.6477 -13.7648 16.9716 0.369725 0.382817 3.81709 
-15.3522 7.28056 -2.10226 -4.17405 2.72673 -3.81782 
15.2651 -18.1912 8.72404 1.7723 -5.98321 0.727722 
15.1541 -16.5421 -15.8855 6.11318 0.216104 -1.43438 
1.34963 18.2764 -1.71075 0.445921 0.637366 6.22598 
-7.10192 -13.3225 2.17404 2.86149 4.86692 2.73814 
9.09901 -16.5493 -8.72269 -5.47447 -1.28615 -0.283612 
-1.75422 14.5425 -7.35917 -1.80288 0.475573 -5.99444 
21.0445 -2.05209 -4.23381 2.6899 1.54769 -5.4578 
17.3429 -17.1042 2.42962 5.42313 -3.06281 0.446884 
15.3091 -14.9957 -13.7625 4.9951 2.45077 -1.21397 
11.429 -10.8463 -4.03668 -4.50285 2.19793 -3.76872 
11.0322 -19.4157 -7.96884 -3.25874 -5.36119 -0.267024 
15.7021 -18.7995 -6.66305 4.37505 -4.39752 -0.827846 
-15.1778 -5.33823 -2.53754 -0.627739 -0.499502 -6.23125 
-9.55536 -12.6272 6.73806 2.29346 3.33599 -0.220521 
6.08781 13.8692 -3.86623 3.51916 1.66508 -4.90699 
-21.7812 -3.38657 1.87891 -2.8144 0.588945 5.56165 
7.60389 11.5315 -5.25402 -0.95294 -0.101084 -6.18593 
-8.62308 -14.8208 14.018 3.56978 0.0352373 0.209837 
6.53429 7.56199 -4.87393 -0.934546 -3.81976 -4.66947 
-17.912 -1.42551 -2.59128 -0.902204 -0.625387 -6.17194 
17.6074 -15.7361 5.94189 6.13467 -1.31294 0.316438 
-16.6406 -17.4329 -10.3605 -6.10395 -1.43771 0.271368 
-8.41751 -14.7382 5.01335 6.08764 1.52211 0.302925 
-11.3625 1.58675 -0.512277 6.12571 1.19404 -0.464824 
12.7832 -12.5152 -10.19 0.0721765 6.12909 -1.15303 
14.8575 -14.2901 -13.8644 4.69037 3.91453 -1.42973 
5.49196 9.11249 -5.05117 -0.587322 -0.338329 -6.24521 
9.2486 -16.6969 -13.6855 -6.20212 -0.617854 -0.391996 
-18.4204 -2.11297 -2.40642 -1.868 -0.698888 -5.95086 
16.4925 -7.14831 -3.98432 4.0743 -0.219153 -4.76822 
-9.07961 -13.3546 6.22903 5.05341 3.72461 0.0313308 
3.23231 19.5201 -3.92935 1.87483 3.28898 -4.98314 
15.0607 -17.5956 -15.2415 5.61621 -2.66627 -0.868537 
-18.1126 1.4887 -1.8206 -4.71923 2.17114 -3.52959 
-15.5536 -18.0737 5.78096 -5.17452 -3.36657 1.16043 
-15.9855 -18.9885 -0.729083 -4.89082 -3.93197 -0.176021 
14.4558 -13.1014 -10.6502 3.29363 5.216 -0.852666 
9.75212 9.10013 -5.45297 -0.649653 -0.0557771 -6.23914 
5.42742 11.5297 -0.102044 1.24573 4.8988 3.72938 
-13.9027 10.2432 -0.806881 -2.23343 2.97416 -0.261573 
14.4319 -5.62983 -4.90031 -0.865528 -0.286301 -6.21204 
-14.1843 -14.4695 16.4469 -6.04194 1.07735 1.32433 
14.011 -19.483 -10.407 2.56053 -4.64199 -0.52628 
-8.9211 -16.4685 13.8536 6.04992 -1.65739 0.18111 
-14.4156 -14.6561 15.0643 -6.07096 1.07274 1.14098 
0.698124 20.2538 -3.67905 -0.0263887 6.20232 -0.958916 
-17.7541 -6.19162 -0.367993 -3.20625 -1.95981 -2.9587 
14.2985 4.68561 -5.54435 -0.168054 -0.096324 -6.25555 
2.23167 -17.3656 0.561457 -1.84942 -0.605651 3.19644 
6.30069 -17.6432 -2.29052 0.0313246 -5.24945 -3.39959 
16.8104 -13.8181 -5.53061 5.4665 2.63931 -1.5476 
-16.518 -15.9132 -11.5861 -6.01422 1.70712 -0.37264 
2.88698 6.80936 -1.67122 -0.0700329 -4.75784 4.02716 
4.60793 11.6733 -5.4478 3.32434 -0.431298 -5.2996 
-17.5167 -6.52531 1.06001 -4.53942 -0.588513 4.29302 
13.7608 -19.7005 -8.2684 1.39094 -6.07603 -0.71773 
-9.91663 7.25598 1.94287 0.982176 0.244226 6.19445 
-10.8879 -19.7802 -3.12737 2.82834 -5.5974 -0.322458 
-18.2395 1.94368 1.5168 -4.18553 2.12782 4.17437 
11.7217 -16.8591 10.7121 -4.55531 -3.98174 1.67133 
12.2132 -19.2341 2.86387 -2.19293 -5.71693 1.38535 
13.0115 9.82949 -1.65761 2.89632 4.24911 3.59754 
8.04209 -3.5094 0.114623 -1.69622 0.396409 6.01655 
11.2249 2.50255 -1.94359 -5.79835 -0.159333 2.36936 
15.0348 -10.0294 1.04942 0.486146 0.60373 6.22878 
5.97389 -15.5488 -3.04493 -2.03407 0.35488 -5.9268 
12.4282 -12.8401 14.4262 -4.89704 3.81208 0.903925 
12.011 -19.8716 -3.19361 -1.78182 -6.00905 -0.0817555 
-11.7956 -19.7872 -8.23228 1.95107 -3.036 -0.358224 
-5.69792 18.4598 -3.1803 -4.88644 3.06274 -2.47424 
-13.8167 -5.18368 3.00547 0.504435 0.338066 6.2405 
-12.0288 -20.2641 -2.02867 1.13988 -6.17113 -0.303872 
13.2765 -14.5923 -18.8918 3.03636 4.92206 -2.409 
9.04748 -17.0874 -3.31253 -3.45807 -4.37638 -2.15355 
-18.3995 1.74009 1.30423 -4.16012 2.39041 4.05598 
17.9411 -16.2016 -1.42154 4.17648 -0.419102 -0.163339 
11.9311 -0.349202 0.570214 -1.62774 1.73197 5.78836 
-9.81998 -11.1688 1.9859 1.83906 1.90509 1.05106 
-10.9732 9.55817 1.59176 -1.07487 3.58526 5.02429 
-14.5354 -5.69736 -2.65507 -0.182439 -0.21254 -3.30049 
5.08635 16.0287 -4.16267 2.32004 0.657737 -5.79352 
-16.4921 5.13456 1.63854 -3.70458 2.25806 4.54211 
12.7745 -15.2693 -19.7524 1.17124 1.85496 -4.60611 
19.8266 -2.95514 -0.581728 2.64895 -0.894494 5.61653 
10.7946 -12.9587 6.04169 -5.18786 3.42698 0.874518 
-11.2738 -16.1831 18.9945 0.531527 -1.36694 6.09456 
-17.8247 -4.11628 -2.11704 -1.23795 -3.1886 -5.26083 
12.9312 -9.22723 -4.52553 -0.291756 0.0142167 -6.2578 
9.55478 -14.6121 -10.8107 -5.61127 2.75327 -0.616281 
12.2625 -10.3807 1.14948 -2.11628 1.65929 5.64629 
-11.6992 -19.0317 -12.5273 4.15136 -4.64272 -0.807881 
17.248 -17.7816 -1.51961 5.46478 -3.07797 -0.308719 
-13.9712 2.27893 2.56766 0.472695 0.579675 6.22783 
-18.5251 1.27059 -1.43522 -4.59686 2.04994 -3.74896 
3.32479 16.3526 -4.90141 3.33963 0.71207 -5.27223 
12.1405 -18.9408 4.09394 -2.64916 -5.49366 1.50066 
6.62101 -17.9624 0.0389617 1.58744 -4.99635 3.44662 
-12.9432 -19.7404 -11.8124 1.26113 -6.0988 -0.760662 
-14.888 -17.8599 8.9599 -4.90208 -3.68459 1.30213 
-11.4093 -11.9998 -2.50614 1.3063 4.04812 -4.60031 
-17.1446 -15.1695 1.84301 -6.07908 0.881301 1.30356 
2.13343 16.7334 -1.67197 0.547223 0.942429 6.18405 
10.8158 -19.2875 -6.63592 -3.76262 -5.02349 -0.26232 
-9.45461 -16.9996 15.66 4.8023 -3.98354 0.673372 
-13.1144 -19.6053 6.05484 -1.36332 -5.9958 1.28531 
15.0629 -17.6643 12.1132 1.86689 -5.88127 1.15029 
12.3251 -19.5661 -12.6991 -0.116109 -6.26279 -0.162271 
-7.53817 -15.128 3.00331 1.00672 0.269294 6.19279 
11.7493 -19.7313 -7.02514 -1.66262 -6.03815 0.0254146 
-1.26764 -16.7004 -0.105593 4.71842 3.12618 -1.34148 
17.7772 -15.2578 3.66718 6.25403 0.171518 0.446008 
-16.3097 -14.0076 -3.72774 -2.1342 0.837339 -0.162756 
-15.525 4.44721 -3.17313 -0.990027 0.312227 -6.18033 
-3.19215 10.272 1.2261 0.490202 0.432867 6.24893 
3.70959 16.188 -1.74019 0.433584 0.393829 6.21985 
-6.06958 -13.3251 -0.413583 2.77859 5.02232 -2.44944 
-11.4391 -10.3531 -1.77861 3.54254 2.53912 -4.50769 
-11.1378 0.565521 0.678643 5.09927 3.19187 1.78448 
-7.64445 7.1757 1.25064 2.01951 -4.16281 4.22195 
-9.62586 -16.3052 -7.26529 6.20313 0.116796 -0.968874 
-9.51811 -12.7253 5.4044 4.31613 4.56352 -0.0431221 
16.4948 -9.29478 0.534527 3.80674 0.630184 4.9019 
-4.94541 14.948 -4.61849 -4.5474 1.6483 -4.00434 
19.686 0.369768 -3.79097 3.86454 3.00674 -3.93629 
14.9611 8.55335 -2.08415 3.77908 3.74562 3.31594 
-10.5671 -12.1571 4.68242 2.94285 5.42917 0.275595 
-10.6553 -19.979 -0.74536 2.85124 -5.55891 -0.483462 
-9.0496 -18.2144 4.51006 5.36708 -3.25479 0.160247 
-1.26109 19.3425 -7.08048 -0.715057 5.33124 -3.19387 
-15.3087 -14.524 -13.5433 -3.21922 4.48623 -0.797285 
4.14276 16.5954 -4.41975 2.53452 0.301319 -5.73899 
-12.7478 -12.3043 14.516 -1.53663 3.48858 0.270937 
8.76611 -5.96646 -1.54139 0.243918 -6.21629 0.613842 
2.27632 18.0505 -1.79051 0.583428 0.467559 6.23756 
9.25911 -2.30279 0.330668 -2.68401 1.92276 5.30172 
3.75042 15.5666 -1.68539 0.479054 -0.699104 6.20015 
14.6472 3.6696 0.227869 0.27982 0.227411 5.91079 
-11.8816 -9.49003 3.02764 2.54328 1.42777 5.49597 
18.0332 1.4835 -4.73481 3.40895 1.95671 -4.90119 
-10.8949 -19.4202 6.06175 2.05551 -5.85382 0.960913 
17.3199 -13.5612 7.36796 5.81399 2.36457 0.12651 
-11.0636 -17.7644 16.6479 1.49414 -5.95724 1.17486 
-7.67734 5.87015 -1.64926 1.59131 -5.43527 -2.68732 
3.59138 15.6153 -4.71201 2.62114 1.14813 -5.5548 
0.322344 9.18611 -6.56067 -1.10645 -3.28538 -5.22204 
-16.6117 -17.0821 -13.2087 -6.2711 -0.185913 -0.195704 
3.1178 13.8817 -1.60558 0.616214 0.409811 6.23891 
-15.0516 -6.2018 -2.49088 -0.420193 -0.423858 -6.25457 
-16.565 -18.0206 -7.08179 -5.71354 -2.58307 0.277946 
-14.8327 9.18765 -1.12976 -4.09336 3.38133 -3.33849 
-16.7066 -17.3814 2.69731 -5.57532 -2.76195 0.853284 
-8.83358 -14.1902 12.9694 5.87882 2.13864 0.546793 
-12.9214 -8.89213 3.1141 1.23661 0.629608 6.11223 
9.78734 -18.2303 -13.6748 -5.22192 -3.46006 -0.11805 
-6.32716 10.5293 1.41978 0.105877 1.50048 6.06171 
7.87891 -1.97077 -1.23509 -3.75543 4.48145 2.2706 
-3.58682 -15.8174 1.88416 2.25988 0.474522 5.84189 
-10.5545 -17.1716 -11.8967 6.04973 -1.08434 -1.25466 
11.0765 11.4647 -2.44925 1.34796 3.12681 2.44583 
-13.3562 -18.5831 10.5153 -2.3541 -5.73832 0.964027 
-9.10641 -3.68348 2.05092 2.05743 0.0116749 5.93033 
-10.6107 -17.5451 -11.7457 5.74992 -1.55624 -1.15304 
5.29941 9.48671 0.598571 0.465954 0.357401 6.25493 
16.9124 -14.1229 -5.56438 5.61498 2.40052 -1.44492 
-16.9786 -2.75823 3.04213 -0.210505 0.257702 6.26474 
-10.4853 -17.668 -10.9167 5.90763 -1.93053 -0.844304 
12.8769 0.778685 -5.15103 -0.434509 -0.342893 -6.25819 
-15.8363 -10.2164 2.96782 -4.22775 0.614302 4.59847 
1.61938 20.2438 -3.24018 0.58254 6.13859 -1.17503 
-10.1249 -13.5082 18.7314 2.83159 0.332345 2.75064 
11.9551 -17.5099 9.68404 -4.10294 -4.5727 1.25195 
10.7814 -19.2191 0.185718 -2.76405 -5.38621 1.65127 
16.559 -16.5894 14.1876 4.61181 -4.19211 0.571379 
16.8132 1.26008 0.265369 0.293493 -0.089019 6.25155 
7.06892 6.41218 -3.59887 -1.92339 -5.28001 -2.80039 
-16.9731 -17.0222 -3.38071 -6.1237 -1.31957 -0.217648 
-14.1333 -10.8413 -2.21933 -0.438288 -0.813442 -6.21411 
-2.54971 8.73637 -6.18356 -0.794151 -3.2214 -5.33122 
-21.8929 -2.10093 1.12659 -3.35267 3.88614 3.60598 
4.81429 17.9457 -3.95911 2.24703 0.701336 -5.76271 
-4.12284 15.0177 -1.11773 0.453672 0.0633948 6.26017 
13.7548 5.84694 -5.52263 -0.308095 0.151848 -6.2671 
12.5044 -19.7034 -9.77794 0.116009 -6.27533 -0.229242 
14.7727 -1.55417 -5.18288 -0.495687 -0.354057 -6.25345 
19.2711 0.435052 -1.07449 4.11564 3.09922 3.59567 
7.76303 -5.03877 -0.167935 -1.40101 -2.43784 5.55888 
-19.5054 -4.43073 2.33568 -1.16141 -3.4682 5.07465 
13.7449 8.01246 -0.419999 3.28519 3.8037 3.76679 
-18.122 -0.837713 2.79864 -1.64139 1.01574 4.28154 
7.20442 6.63868 -3.95219 -1.85601 -5.14668 -3.06566 
10.5732 -2.18073 0.687512 -0.594508 0.291232 6.23779 
5.21322 11.4871 -5.24033 2.27509 -0.283802 -5.83897 
-15.2312 -15.0244 11.243 -6.09478 0.410612 1.41976 
-13.3868 -20.1225 -7.10141 -0.155329 -6.25353 -0.584812 
11.9394 -8.32032 -3.49682 -5.70537 1.01126 -2.41451 
-14.2666 -20.0527 -6.27043 -2.07783 -5.91311 -0.233566 
-16.6317 -17.9113 1.61891 -5.72513 -2.53338 0.501607 
-2.07303 6.89817 -2.64399 0.386193 -6.25468 -0.267834 
15.9481 5.84925 -0.721796 4.37304 2.51255 3.74647 
-11.4339 -8.92859 -0.939575 4.20056 1.76627 -4.32035 
-11.0191 -11.8553 6.88064 2.06779 5.92142 0.320981 
15.7867 -12.061 13.5886 2.73556 4.59378 0.133685 
17.3653 -11.4448 -0.222219 5.40532 0.547346 3.14962 
-16.3243 -15.6294 -12.9724 -5.67072 2.65765 -0.19306 
-17.6101 -6.18478 1.25523 -3.36359 -1.59308 4.92704 
-11.8786 -7.58406 1.97825 5.10059 1.36629 3.39173 
-9.2319 -12.9615 4.32601 4.79363 4.01777 0.428784 
-10.3201 -19.2204 5.74993 2.88263 -5.52792 0.772087 
-10.6904 11.5524 -0.465496 -1.50473 4.91904 3.59199 
-17.1548 -16.021 0.52969 -6.23879 -0.0961836 -0.61832 
-3.58442 -18.3758 -0.660707 -0.0643428 -3.19436 -2.23763 
19.3207 1.62796 -3.36169 4.4655 2.82927 -3.38872 
-2.2283 20.0934 -4.39558 -1.18103 6.09897 -0.680971 
14.7532 -17.4128 14.3362 0.38368 -6.1107 1.34394 
-9.96446 -5.16754 1.7438 0.45211 -3.91897 4.74665 
7.21695 8.81224 0.496843 0.289068 0.154396 6.27209 
11.0441 -19.2867 -11.0821 -2.74823 -5.64545 -0.21491 
-16.3936 -18.4358 -1.93966 -5.313 -3.34238 -0.030903 
-8.32794 -2.57065 -1.5849 2.56305 3.82617 -4.26969 
-3.51497 17.3378 -5.90687 -5.50965 0.865882 -2.88499 
17.7146 -14.6223 3.58042 6.22419 0.829263 0.150377 
-16.3079 0.295683 -2.9021 -0.565332 -0.373699 -6.2452 
14.3137 -11.5979 10.6413 0.234157 6.26236 0.435058 
9.21311 -14.529 1.73101 -3.68765 0.304558 0.872842 
-16.5574 1.86478 -2.95966 -0.845182 0.0206457 -6.21834 
-2.22048 15.547 -1.23031 0.534935 -0.260097 6.25191 
12.7059 -15.5783 -19.8241 0.398758 1.00944 -6.15529 
-16.7009 5.48167 1.18824 -4.14072 1.7545 4.37735 
-16.403 -6.71089 -1.96596 -4.69253 -0.504015 -4.14382 
13.156 -15.5826 16.8314 -2.42508 -1.65821 5.52598 
-16.8189 -15.3299 -3.77976 -6.01411 1.77904 -0.372783 
13.5311 4.90567 -5.45208 -0.616143 -0.437906 -6.22474 
-7.29232 13.9003 -2.26462 -5.98106 1.24755 1.33063 
-9.71673 -2.40679 -2.35215 2.48293 2.70091 -5.09696 
-11.1987 -18.5054 -12.719 5.10519 -3.51276 -0.967211 
-14.1429 -20.2406 -1.31246 -1.83568 -6.00019 0.124893 
16.0006 -11.7859 1.87553 3.38239 5.28991 0.0812878 
7.15812 -4.93135 -0.351417 -2.22293 -2.18714 5.43209 
13.2953 -7.16531 1.01691 -2.7626 0.786097 4.68892 
15.1975 -12.7277 -7.5213 3.1111 5.19445 -1.64686 
-15.5196 -19.2506 -11.728 -3.93924 -4.85457 -0.244466 
6.76381 14.6178 -3.02937 5.439 1.02221 -1.1343 
-15.9463 -14.5162 6.91931 -5.92406 1.79918 1.04299 
-7.8945 -17.8416 1.51769 3.33403 -4.5425 2.76378 
-13.0308 -12.3681 13.6913 -2.45343 4.41576 0.639626 
-11.9846 -13.9269 -11.0897 2.65231 5.39544 -1.79709 
12.2509 -13.5811 -15.6365 -0.153615 6.17391 -1.08373 
-15.9955 -15.8529 -15.5512 -4.28029 2.12077 -2.19567 
8.95336 -17.9619 -1.11847 -1.03355 -5.11194 -1.26451 
3.05409 7.39727 -4.19567 2.48776 -5.32319 -2.21077 
-3.59633 11.6387 -6.85871 -2.61995 -0.378415 -5.68709 
-10.1635 -18.0271 -8.27122 5.62907 -2.67865 -0.781895 
16.6274 -15.6563 16.2281 5.00759 -2.45175 2.86157 
-8.63661 -15.9722 11.7927 6.07755 -1.42804 0.604845 
8.48564 12.2054 -4.37461 2.75186 5.05249 -2.42713 
21.5384 -1.64491 -3.77106 3.23245 2.92193 -4.52152 
19.83 -1.43912 -0.614035 2.72761 0.844411 5.58212 
-1.66037 17.5167 -7.75383 -2.49572 -0.563661 -5.7227 
-13.5175 -18.0225 12.4498 -3.09669 -5.24859 1.50724 
-12.1634 -18.7618 -15.4446 3.81539 -4.47332 -2.18355 
21.4172 -4.22889 -1.85883 2.50215 -2.88116 4.98585 
-9.12106 -1.57384 -1.29245 3.05608 4.08102 -3.65263 
17.4076 -16.5662 5.19324 5.76975 -2.39239 0.655059 
-5.57111 17.342 -3.74913 -3.32079 1.08615 -5.21848 
12.8641 6.25279 0.295667 0.639403 0.527643 6.16049 
6.40112 -17.8562 0.330876 0.873194 -4.6923 4.07848 
11.856 -19.109 2.90334 -2.37455 -5.65454 1.36387 
11.7179 -19.4746 -12.5307 -1.81338 -5.99522 -0.469313 
22.1548 -4.2992 -3.0748 2.48296 -4.65633 -3.34392 
-14.653 -14.6116 13.7872 -6.08016 0.966936 1.20187 
12.1147 -19.3403 -16.7906 0.567999 -6.25607 -0.0582207 
9.68733 -3.25985 0.547112 -1.14454 -0.389783 6.16383 
11.2177 -8.33097 -1.48548 -5.98924 1.7027 -0.29296 
-8.69761 -15.7779 -2.82708 5.68429 0.671081 -2.21604 
-11.7385 -19.905 -6.34938 2.19045 -5.85763 -0.449514 
-10.4521 -19.387 5.03484 2.6704 -5.61507 0.869181 
6.12025 -17.6309 0.622493 0.686012 -4.56917 4.25764 
3.64027 18.0036 -1.94509 0.682932 0.678162 6.20658 
-8.16338 6.28393 -2.57946 1.61967 -4.81587 -3.69108 
17.1463 -17.8447 -0.607005 5.28576 -3.3775 0.345188 
-14.553 -15.7603 14.3126 -6.02361 -1.17082 1.3104 
6.62437 10.5688 0.457878 0.418315 1.50414 6.02638 
13.8578 5.33829 -5.51776 -0.57447 -0.451508 -6.23744 
1.31579 19.1214 -6.21882 4.14009 4.04123 -2.44535 
-9.52921 9.6983 1.73002 -0.0435846 1.59517 6.01469 
13.3842 -17.248 13.6185 -1.99967 -4.66718 0.904719 
-13.246 -2.86254 -2.84325 -0.40327 -0.339042 -6.26078 
-17.5485 -3.28306 2.99754 -0.557322 -0.134004 6.02459 
16.6637 -2.61712 -5.19386 -0.048926 -0.468482 -6.26016 
10.0716 -11.2408 0.278753 -3.05074 4.35714 3.2976 
9.28309 -14.8068 -8.67206 -5.75913 2.29987 -0.63597 
-16.6837 -15.2934 -5.63638 -5.99 1.85769 -0.344071 
14.6074 -11.8279 15.4691 1.47687 5.97594 0.774793 
-9.62818 -1.88223 -1.94888 2.88381 3.42041 -4.40726 
-13.2499 -19.9964 -9.20162 0.603546 -5.15918 -0.241261 
-5.28687 7.78654 0.92974 1.84888 -4.35131 4.11699 
9.46251 5.5233 -3.86715 -2.99923 -4.6619 -2.73413 
6.2128 9.92191 -5.15592 0.0657946 -0.0953242 -6.27928 
-13.8249 -13.2706 -9.12742 -1.1675 6.03692 -1.249 
-9.18167 -18.2865 -1.94128 5.48454 -2.90921 -0.918076 
14.655 -19.2974 -8.54858 2.86258 -4.21171 -0.552614 
10.2752 -14.1433 -13.9713 -4.17843 4.61298 -0.800582 
-14.7095 -19.4679 3.8763 -3.06349 -5.25821 1.5431 
16.4091 -0.0760731 -5.37378 -0.530333 -0.588584 -6.22984 
-21.4922 -1.32946 0.549194 -4.49616 4.1736 -1.30961 
-19.8415 -5.21562 1.57945 -0.685988 -4.31366 4.5166 
-3.51947 12.8838 -0.878486 0.381768 3.61999 5.0087 
10.3826 -18.9653 -12.9622 -4.08382 -4.71721 -0.503652 
0.385691 14.9982 -7.20154 2.02357 0.624309 -5.91293 
-10.4659 -15.1664 19.0203 1.64261 0.0805984 6.04838 
-4.59657 -16.1533 2.30286 1.73177 0.0354843 6.03268 
13.0393 -5.09812 0.320316 -3.57194 0.440762 5.14551 
14.1436 -11.858 14.8048 -0.654702 5.73986 0.556778 
3.28045 13.5884 -5.99044 3.7419 0.674073 -4.97793 
17.4968 -16.6459 3.50593 5.83444 -2.32049 0.191216 
9.62532 -15.0965 3.46818 -6.14045 0.34069 1.27987 
5.15604 9.78784 -5.11545 -0.34366 -0.491561 -6.25228 
-8.00376 -14.4034 3.17893 2.49205 1.20053 5.63195 
-16.2854 -0.878805 2.9236 0.37315 0.328383 4.59839 
0.975014 7.52489 -5.1269 -0.645778 -5.33849 -3.21644 
3.31523 -16.7238 -2.09437 -2.81491 0.16288 -5.57554 
4.57471 7.31524 -0.795259 -0.481559 -4.7262 4.10949 
-12.9855 -2.16222 2.72486 0.526244 0.253758 6.25549 
9.04832 -15.6666 -7.46278 -6.26417 0.337183 -0.173867 
-13.7777 -3.46326 2.87173 -0.0835913 0.229537 3.01648 
11.9094 -16.5637 12.0908 -4.95754 -3.57659 1.42885 
-8.82029 -11.9095 -0.806457 2.64865 4.36465 -3.66038 
7.75698 8.85237 -5.21266 -0.733797 -0.642222 -6.17319 
-12.5023 -20.4344 -0.546484 -0.135006 -6.27327 -0.274316 
9.20914 -13.3382 -3.68621 -2.82471 2.50988 -4.98836 
-16.461 -12.1604 2.83894 -5.10877 0.36115 3.63872 
10.0852 -15.9843 5.65676 -6.07333 -1.32082 0.917864 
-15.0835 -4.27284 -2.62114 -0.780412 -0.298317 -6.22666 
11.9917 -13.6516 15.0561 -5.91214 1.60926 1.36279 
11.7948 -11.6962 3.87719 -2.96177 5.50164 0.590744 
16.3267 -16.6572 -10.017 6.0599 -1.02448 -1.2775 
12.9716 0.433976 0.593121 0.178524 0.333394 6.24033 
-7.24549 -2.89757 0.615178 4.07273 4.2291 2.15746 
-9.69429 -12.8 8.6158 3.97799 4.85254 0.184528 
2.09941 11.1628 0.716818 0.512361 1.71646 5.98459 
-16.6898 -15.669 4.0582 -6.10274 0.442013 1.38309 
12.8589 -19.1623 -17.6886 1.98536 -5.91612 -0.712412 
-15.4421 -15.515 -15.9397 -3.27289 3.60094 -3.88657 
17.4604 -17.4304 -1.47565 5.61042 -2.78099 -0.363124 
12.2108 -19.5386 -13.032 -0.861015 -6.20856 -0.366256 
-9.20196 -13.0543 7.2543 4.33603 4.38286 -0.639553 
-15.5453 -19.4214 -2.63136 -4.21095 -4.64494 0.015514 
-13.345 -0.427223 2.67114 0.440698 0.287354 6.26092 
-4.47173 10.6115 -6.25868 -3.27844 -1.62812 -5.10171 
-2.62637 15.9266 -6.84875 -3.31567 0.0562092 -5.03492 
-11.8625 11.2598 -1.47288 -2.54652 4.80561 -3.13565 
15.7461 -17.1597 13.7123 2.69436 -5.55127 1.16798 
3.19621 6.5174 -1.94937 -0.114389 -1.98332 2.47431 
-12.8253 -13.2914 -9.59737 0.664448 6.09075 -1.34591 
16.5551 -15.1287 -8.61539 6.04434 1.0219 -1.27873 
20.9628 -0.625835 -3.46502 3.35651 3.43963 -4.04646 
-15.3313 7.74851 0.801528 -3.15087 3.69937 3.79326 
20.2302 -4.54787 -3.653 1.4355 -4.63927 -3.98328 
-5.89142 16.4324 -3.70693 -3.19108 0.707999 -5.36067 
16.7231 -2.9419 -5.15585 0.0145384 -0.706317 -6.23873 
-17.2849 -8.80516 1.33992 -5.06954 -0.0371038 3.7058 
-20.822 -1.62941 1.60664 -3.47913 3.45597 3.89235 
-2.97361 9.59288 -6.53808 -1.62544 -2.3978 -5.56546 
-9.61964 -16.0031 -7.19772 6.13278 0.657665 -1.18075 
-8.70958 -14.7003 14.6598 6.17633 1.07093 0.352338 
-1.37516 16.4994 -1.36487 0.23978 0.908298 6.2004 
9.16157 -1.25619 -2.91334 -4.18638 3.88349 -2.6154 
-9.29899 -6.38068 -0.564545 0.219048 -3.08859 -2.70445 
-10.8655 -1.32007 2.36478 1.86995 1.58583 5.76392 
-15.1681 -5.30705 3.0627 -1.41252 0.294408 6.00108 
-5.40108 16.0293 -0.984492 -0.0799658 0.704258 5.1559 
1.95372 18.8901 -5.61739 4.88566 2.81797 -2.7521 
14.8092 -13.2689 -10.7922 3.5247 4.98389 -1.47004 
16.6142 -16.195 -8.47094 6.17976 -0.299078 -1.08453 
7.9555 -17.3685 -2.58996 0.542818 -5.52426 -2.93835 
-15.5006 -13.7799 -7.65794 -3.99813 4.79926 -0.674794 
2.40697 13.7427 -1.53279 0.493732 0.476234 6.24548 
-11.2635 -8.33848 1.17799 5.48904 1.76085 2.43666 
17.8714 -15.192 0.632957 6.26988 0.245844 0.303062 
-9.69033 -12.6783 6.4182 4.17538 4.67988 0.0749411 
0.268249 17.6465 -7.60329 2.9178 -0.714169 -5.48466 
9.16996 -1.59536 -0.277935 -2.99069 3.95285 3.85691 
-9.15464 5.26143 -0.195341 2.49563 -4.89513 3.03955 
14.8464 -16.9836 16.0101 0.790312 -5.83637 2.11789 
-14.4255 -17.6069 11.1667 -4.53096 -4.07198 1.5296 
-11.9486 -19.5455 -10.2102 2.92372 -5.52154 -0.450248 
-11.8283 -20.0283 3.89682 1.21386 -6.06997 1.03215 
-16.8641 -15.7338 -4.52268 -6.16018 1.01866 -0.662916 
14.4399 -16.8368 -18.843 5.83604 -0.252039 -2.2541 
-9.90768 -13.118 18.1754 4.12272 3.84546 2.706 
10.231 -14.8224 -17.541 -4.68198 4.12535 -0.703649 
-7.63969 9.08869 -4.0931 0.0765365 -0.264654 -6.27512 
-16.3611 -15.0355 -8.87784 -5.49661 3.01648 -0.338158 
15.3076 -12.2386 -5.33892 3.28751 5.20504 -1.24599 
-12.7803 -15.4796 19.0253 -1.36983 0.0547189 6.10999 
-4.19606 18.9081 -4.56231 -1.52437 2.22705 -1.35255 
-7.21784 7.25606 -3.73291 0.0880161 -2.4369 -3.84224 
17.2397 -13.6871 12.0173 5.80558 2.37105 0.353529 
-4.07067 -15.7974 2.063 2.23471 0.41398 5.85561 
2.03142 10.7147 -7.039 1.81231 -1.58705 -5.78319 
-13.2079 -6.98076 -2.21225 3.58805 -0.15903 -5.13256 
11.1602 -12.8852 -9.91074 -2.80928 5.49798 -1.07516 
20.6075 -2.34145 -0.93508 2.63039 -0.0114246 5.70048 
14.1612 -11.5408 9.90789 0.239718 6.26574 0.382767 
-3.65345 -16.8654 -1.64046 1.60808 -0.558232 -6.04366 
1.24953 14.0328 -6.9036 3.22692 -0.878793 -5.29929 
5.82836 10.057 0.522308 0.50912 0.429171 6.24737 
12.5609 -19.4935 -13.9466 0.0488148 -6.27004 -0.351022 
10.8826 -12.4945 4.52594 -4.39952 4.37845 0.916947 
-0.550159 16.4036 -7.57641 0.99464 -1.54801 -6.00625 
13.2697 -20.0068 -0.196393 -0.0977554 -6.24004 0.697375 
-16.1634 -15.5928 6.52443 -6.11574 0.367001 1.37462 
-15.4888 -14.0446 -9.23367 -4.08311 4.75314 -0.385312 
12.5297 -13.0197 -12.7041 -0.124732 6.16412 -1.0178 
5.36538 12.6831 -1.65663 1.3571 3.77356 4.66626 
2.17236 7.7277 -5.40182 0.977849 -4.78539 -3.88607 
13.5928 5.56889 -5.54614 -0.485313 -0.424712 -6.24511 
9.34153 -15.1147 -11.5154 -6.01855 0.98867 -0.128257 
9.458 -17.5707 -13.4979 -5.83734 -2.25359 -0.390051 
10.6586 5.19597 -4.74203 -3.35093 -3.53074 -3.96436 
-14.6707 -20.0786 -1.63866 -2.79659 -4.50996 -0.0564949 
-6.07952 8.13303 -4.02128 0.196903 -1.41384 -6.10239 
13.5896 -19.5771 2.12903 0.402246 -6.16981 1.10995 
-15.2655 -12.6545 -2.99018 -5.05449 1.54014 -3.37274 
16.7835 -0.159699 -5.41694 -0.448098 -0.556491 -6.24142 
1.41279 15.9616 -6.62099 3.76361 0.297648 -5.01443 
12.9547 1.07731 -5.13859 -1.48493 -0.0800849 -6.09386 
-11.7029 -19.9022 4.64608 1.28475 -6.06224 1.02554 
-14.3856 -18.001 10.2473 -3.91294 -4.63994 1.58987 
6.6302 11.1618 -5.08179 -0.387848 0.572845 -4.51143 
7.47275 6.60093 -0.991985 -1.48947 -4.63677 3.96607 
13.9961 -11.9593 15.4438 -0.744403 6.13816 1.04166 
10.2582 -11.8572 -3.30315 -3.55858 3.25453 -3.99084 
9.14465 -15.4185 -8.8715 -6.15046 1.19465 -0.314324 
-14.3489 1.78765 2.59862 0.472494 0.36489 6.25437 
-5.04075 14.6351 -4.66789 -4.86795 1.94165 -3.4545 
17.5159 3.43675 -4.34905 4.32417 1.87086 -4.15102 
-1.77165 -16.5976 -0.699495 4.24113 2.05517 -4.12349 
10.0549 6.47815 -5.32114 -1.20178 -1.19944 -5.84251 
13.6954 -10.3012 1.1434 0.545641 0.152767 6.24934 
6.31589 10.8182 0.346584 0.957569 2.59322 5.61897 
9.83224 -14.1513 -10.4919 -4.90187 3.87343 -0.653768 
-13.6989 4.73239 -3.33051 -0.47121 -0.490154 -6.24587 
13.3385 -17.5517 12.3101 -2.35136 -5.68911 1.23464 
15.8941 3.30139 0.218552 -0.218128 0.0738921 6.26927 
20.2014 -3.77435 -1.00965 2.25231 -2.49414 5.29779 
10.6456 10.5305 -4.60984 1.87417 3.90145 -4.5544 
17.3559 -16.9862 2.77319 5.41349 -3.03245 0.919 
-3.24345 -14.8846 -0.408397 2.84178 4.77425 -2.77875 
17.3371 5.08214 -3.73537 3.49021 1.8737 -2.94417 
-2.94345 -18.2845 0.765817 0.317101 -4.80624 4.0284 
-11.5214 -13.5038 -8.37263 3.13339 5.20483 -1.55806 
-13.7641 -3.71283 -2.76447 -0.0571205 -1.78464 -6.02062 
-4.59445 13.56 -0.985916 0.816704 0.155685 6.20372 
17.0569 -17.2794 4.63958 5.23017 -3.39799 0.751966 
-15.8468 -13.6535 -4.48133 -4.46682 4.34572 -0.784454 
-7.09557 -4.20434 1.11405 3.36204 0.242068 5.2963 
11.1545 -19.5206 -4.6242 -2.72431 -5.65622 -0.143343 
-16.7434 -16.2085 -8.9227 -6.25269 0.436789 -0.349131 
5.96918 15.1998 -2.08081 0.377768 0.160571 3.71482 
17.9123 -3.22999 -5.00099 1.36412 -1.25999 -5.99532 
12.6136 -15.4464 16.5415 -4.0523 -2.47029 4.07861 
-2.02381 -15.7434 0.471777 2.25823 1.7383 1.07166 
-15.9349 -19.0005 -4.95159 -4.89549 -3.93405 -0.159755 
-15.2318 -19.3555 -14.9726 -3.20754 -3.59903 -0.742356 
8.54141 6.10296 -1.11035 -2.00445 -4.65642 3.70276 
-16.5395 -16.4878 -13.2608 -6.13579 1.31687 -0.096413 
10.919 9.75336 -5.10872 1.46872 3.57264 -4.94383 
15.5845 -18.4402 6.29626 2.97701 -5.47508 0.710351 
-19.4129 0.495806 1.10804 -3.93125 2.90836 3.94458 
-17.1841 -11.0064 -0.0236301 -5.78028 -0.529544 -2.40527 
-16.3433 -5.03109 -2.38066 -4.1844 -0.796551 -4.5231 
7.61387 12.7159 -4.21107 2.64913 5.38532 -1.85612 
-16.3791 3.02882 -3.00602 -2.72264 1.01513 -4.55993 
-14.3766 -0.608146 2.75034 0.440688 0.335736 6.25861 
-10.206 -12.2351 6.41076 3.34707 5.30651 0.245035 
13.83 -17.0007 15.477 -2.0556 -5.73979 1.49887 
-17.2455 -15.7005 0.768828 -6.0445 0.183117 -1.64531 
17.0904 -12.9089 2.55805 5.29902 3.3707 0.158058 
-16.9901 -15.294 -0.9479 -6.03999 1.67392 -0.0943684 
-15.1644 -8.4722 -2.43569 -0.0744492 0.174177 -6.27726 
8.85184 -11.7582 -0.156545 -2.20659 3.28437 2.12281 
-11.143 -12.3111 17.8443 -0.0918036 3.43439 0.856964 
-16.5306 -17.8861 -9.8832 -5.83774 -2.29883 -0.251567 
